ply
format ascii 1.0
element vertex 1168
property float x
property float y
property float z
property uchar red
property uchar green
property uchar blue
end_header
0.582781 -0.335541 -7.233554 105 105 105 
0.600442 -0.335541 -7.233554 106 106 106 
0.617420 -0.335171 -7.225579 110 110 110 
0.633663 -0.334433 -7.209681 112 112 112 
0.649123 -0.333333 -7.185965 114 114 114 
0.666667 -0.333333 -7.185965 115 115 115 
0.684211 -0.333333 -7.185965 116 116 116 
0.702525 -0.333699 -7.193853 115 115 115 
0.720879 -0.334066 -7.201758 114 114 114 
0.738462 -0.334066 -7.201758 115 115 115 
0.876433 -0.387261 -8.348536 117 117 117 
0.896815 -0.387261 -8.348536 119 119 119 
0.917197 -0.387261 -8.348536 118 118 118 
0.938776 -0.387755 -8.359184 118 118 118 
0.959184 -0.387755 -8.359184 121 121 121 
0.979592 -0.387755 -8.359184 122 122 122 
1.000000 -0.387755 -8.359184 120 120 120 
1.020408 -0.387755 -8.359184 119 119 119 
1.040816 -0.387755 -8.359184 122 122 122 
1.061224 -0.387755 -8.359184 123 123 123 
1.081633 -0.387755 -8.359184 122 122 122 
1.211155 -0.403718 -8.703321 123 123 123 
1.235686 -0.404794 -8.726499 124 124 124 
1.256991 -0.404794 -8.726499 125 125 125 
1.301333 -0.405333 -8.738133 123 123 123 
1.411765 -0.406417 -8.761497 123 123 123 
1.433155 -0.406417 -8.761497 124 124 124 
1.454545 -0.406417 -8.761497 122 122 122 
1.475936 -0.406417 -8.761497 122 122 122 
1.495327 -0.405874 -8.749800 120 120 120 
1.516689 -0.405874 -8.749800 118 118 118 
1.536000 -0.405333 -8.738133 122 122 122 
1.511962 -0.363636 -7.839234 120 120 120 
1.531101 -0.363636 -7.839234 120 120 120 
1.552096 -0.364072 -7.848623 120 120 120 
1.571257 -0.364072 -7.848623 119 119 119 
1.590419 -0.364072 -7.848623 119 119 119 
1.611511 -0.364508 -7.858034 118 118 118 
1.628742 -0.364072 -7.848623 116 116 116 
1.647904 -0.364072 -7.848623 115 115 115 
1.667066 -0.364072 -7.848623 115 115 115 
1.686228 -0.364072 -7.848623 116 116 116 
1.705389 -0.364072 -7.848623 115 115 115 
1.730769 -0.365385 -7.876923 111 111 111 
1.754217 -0.366265 -7.895904 110 110 110 
1.987453 -0.381430 -8.222836 110 110 110 
2.007528 -0.381430 -8.222836 112 112 112 
2.027604 -0.381430 -8.222836 114 114 114 
2.052830 -0.382390 -8.243522 115 115 115 
2.075567 -0.382872 -8.253904 114 114 114 
2.101010 -0.383838 -8.274748 114 114 114 
2.123894 -0.384324 -8.285209 113 113 113 
2.144121 -0.384324 -8.285209 116 116 116 
2.158890 -0.383354 -8.264313 116 116 116 
2.170854 -0.381910 -8.233166 114 114 114 
2.190955 -0.381910 -8.233166 111 111 111 
2.208281 -0.381430 -8.222836 109 109 109 
2.220000 -0.380000 -8.192000 109 109 109 
2.240000 -0.380000 -8.192000 112 112 112 
2.257179 -0.379526 -8.181773 117 117 117 
2.280000 -0.380000 -8.192000 117 117 117 
2.139037 -0.325134 -7.009198 110 110 110 
2.146965 -0.323749 -6.979340 113 113 113 
2.159405 -0.323061 -6.964506 112 112 112 
2.174098 -0.322718 -6.957113 114 114 114 
2.191083 -0.322718 -6.957113 113 113 113 
2.208068 -0.322718 -6.957113 109 109 109 
2.227418 -0.323061 -6.964506 105 105 105 
2.256410 -0.324786 -7.001709 105 105 105 
2.278373 -0.325482 -7.016703 105 105 105 
2.300429 -0.326180 -7.031760 106 106 106 
2.317597 -0.326180 -7.031760 109 109 109 
2.334764 -0.326180 -7.031760 110 110 110 
2.349411 -0.325831 -7.024223 108 108 108 
2.361497 -0.325134 -7.009198 104 104 104 
2.373533 -0.324440 -6.994237 101 101 101 
2.390608 -0.324440 -6.994237 104 104 104 
2.423201 -0.326531 -7.039313 107 107 107 
2.443011 -0.326882 -7.046882 107 107 107 
2.462863 -0.327234 -7.054467 105 105 105 
2.507073 -0.330794 -7.131230 103 103 103 
2.527233 -0.331155 -7.138998 102 102 102 
2.550218 -0.331878 -7.154585 104 104 104 
2.570492 -0.332240 -7.162405 105 105 105 
2.596491 -0.333333 -7.185965 105 105 105 
2.616904 -0.333699 -7.193853 104 104 104 
2.637363 -0.334066 -7.201758 103 103 103 
2.693423 -0.338907 -7.306132 103 103 103 
2.714286 -0.339286 -7.314286 107 107 107 
2.735196 -0.339665 -7.322458 109 109 109 
2.759238 -0.340426 -7.338858 107 107 107 
2.780269 -0.340807 -7.347085 104 104 104 
2.801347 -0.341190 -7.355331 102 102 102 
2.832018 -0.342728 -7.388501 104 104 104 
2.853273 -0.343115 -7.396840 105 105 105 
2.874576 -0.343503 -7.405198 106 106 106 
2.899207 -0.344281 -7.421971 105 105 105 
2.920635 -0.344671 -7.430386 104 104 104 
2.945455 -0.345455 -7.447273 103 103 103 
2.963636 -0.345455 -7.447273 106 106 106 
2.975057 -0.344671 -7.430386 106 106 106 
2.989807 -0.344281 -7.421971 105 105 105 
3.007927 -0.344281 -7.421971 98 98 98 
3.026047 -0.344281 -7.421971 94 94 94 
3.054545 -0.345455 -7.447273 96 96 96 
3.233843 -0.357227 -7.701058 95 95 95 
3.245018 -0.356389 -7.683002 98 98 98 
3.267606 -0.356808 -7.692019 102 102 102 
3.294118 -0.357647 -7.710118 105 105 105 
3.320755 -0.358491 -7.728302 105 105 105 
3.347518 -0.359338 -7.746572 102 102 102 
3.370414 -0.359763 -7.755740 103 103 103 
3.389349 -0.359763 -7.755740 104 104 104 
3.408284 -0.359763 -7.755740 105 105 105 
3.423168 -0.359338 -7.746572 100 100 100 
3.438016 -0.358914 -7.737426 99 99 99 
3.452830 -0.358491 -7.728302 100 100 100 
3.471698 -0.358491 -7.728302 97 97 97 
3.494687 -0.358914 -7.737426 93 93 93 
3.534442 -0.361045 -7.783373 89 89 89 
3.578947 -0.363636 -7.839234 90 90 90 
3.602395 -0.364072 -7.848623 93 93 93 
3.625899 -0.364508 -7.858034 92 92 92 
3.645084 -0.364508 -7.858034 95 95 95 
3.659880 -0.364072 -7.848623 98 98 98 
3.674641 -0.363636 -7.839234 97 97 97 
3.680572 -0.362336 -7.811204 97 97 97 
3.686461 -0.361045 -7.783373 100 100 100 
3.705463 -0.361045 -7.783373 105 105 105 
3.915106 -0.379526 -8.181773 104 104 104 
3.935081 -0.379526 -8.181773 102 102 102 
3.955056 -0.379526 -8.181773 100 100 100 
3.965131 -0.378580 -8.161395 98 98 98 
3.980099 -0.378109 -8.151244 95 95 95 
4.000000 -0.378109 -8.151244 96 96 96 
3.833333 -0.351852 -7.585186 92 92 92 
4.083436 -0.373006 -8.041227 97 97 97 
4.171359 -0.372093 -8.021543 95 95 95 
4.175610 -0.370732 -7.992195 95 95 95 
4.195122 -0.370732 -7.992195 92 92 92 
4.250000 -0.365385 -7.876923 80 80 80 
4.233612 -0.362336 -7.811204 75 75 75 
4.217494 -0.359338 -7.746572 74 74 74 
4.231405 -0.358914 -7.737426 79 79 79 
4.250295 -0.358914 -7.737426 76 76 76 
4.274232 -0.359338 -7.746572 75 75 75 
4.308422 -0.360617 -7.774140 77 77 77 
4.358423 -0.363202 -7.829869 77 77 77 
4.382775 -0.363636 -7.839234 75 75 75 
4.407186 -0.364072 -7.848623 75 75 75 
4.421052 -0.363636 -7.839234 71 71 71 
4.445509 -0.364072 -7.848623 66 66 66 
4.486874 -0.362769 -7.820525 77 77 77 
4.484560 -0.361045 -7.783373 81 81 81 
4.637681 -0.367150 -7.914976 59 59 59 
4.651387 -0.366707 -7.905428 54 54 54 
4.670688 -0.366707 -7.905428 56 56 56 
4.689988 -0.366707 -7.905428 57 57 57 
4.726392 -0.368039 -7.934141 56 56 56 
4.751515 -0.368485 -7.943758 54 54 54 
4.782503 -0.369380 -7.963062 50 50 50 
4.819512 -0.370732 -7.992195 49 49 49 
4.856793 -0.372093 -8.021543 49 49 49 
4.888343 -0.373006 -8.041227 50 50 50 
4.914005 -0.373464 -8.051105 48 48 48 
4.939729 -0.373924 -8.061008 48 48 48 
4.953317 -0.373464 -8.051105 46 46 46 
4.966871 -0.373006 -8.041227 41 41 41 
4.992629 -0.373464 -8.051105 40 40 40 
5.012285 -0.373464 -8.051105 43 43 43 
-3.519274 -0.362812 -7.430386 35 35 35 
-3.493213 -0.361991 -7.413575 40 40 40 
-3.471186 -0.361582 -7.405198 43 43 43 
-3.426009 -0.358744 -7.347085 47 47 47 
-3.404255 -0.358343 -7.338858 50 50 50 
-3.378771 -0.357542 -7.322458 56 56 56 
-3.360894 -0.357542 -7.322458 61 61 61 
-3.343017 -0.357542 -7.322458 64 64 64 
-3.328859 -0.357942 -7.330649 66 66 66 
-3.310962 -0.357942 -7.330649 66 66 66 
-3.293065 -0.357942 -7.330649 64 64 64 
-3.282511 -0.358744 -7.347085 62 62 62 
-3.282976 -0.360767 -7.388501 61 61 61 
-3.276018 -0.361991 -7.413575 60 60 60 
-3.261608 -0.362401 -7.421971 62 62 62 
-3.243488 -0.362401 -7.421971 66 66 66 
-3.232690 -0.363224 -7.438819 69 69 69 
-3.307692 -0.384615 -7.876923 58 58 58 
-3.288461 -0.384615 -7.876923 56 56 56 
-3.269231 -0.384615 -7.876923 60 60 60 
-3.250000 -0.384615 -7.876923 65 65 65 
-3.230769 -0.384615 -7.876923 69 69 69 
-3.230955 -0.386941 -7.924547 73 73 73 
-3.227217 -0.388821 -7.963062 71 71 71 
-3.211679 -0.389294 -7.972750 68 68 68 
-3.192214 -0.389294 -7.972750 70 70 70 
-3.172749 -0.389294 -7.972750 71 71 71 
-3.157125 -0.389769 -7.982460 69 69 69 
-2.974118 -0.376471 -7.710118 81 81 81 
-2.948357 -0.375587 -7.692019 81 81 81 
-2.926143 -0.375147 -7.683002 85 85 85 
-2.907386 -0.375147 -7.683002 88 88 88 
-2.875146 -0.373396 -7.647141 89 89 89 
-2.853147 -0.372960 -7.638228 86 86 86 
-2.834499 -0.372960 -7.638228 85 85 85 
-2.829040 -0.374707 -7.674005 90 90 90 
-2.820211 -0.376028 -7.701058 92 92 92 
-2.804706 -0.376471 -7.710118 92 92 92 
-2.789164 -0.376914 -7.719199 93 93 93 
-2.770318 -0.376914 -7.719199 95 95 95 
-2.751472 -0.376914 -7.719199 95 95 95 
-2.732627 -0.376914 -7.719199 94 94 94 
-2.716981 -0.377358 -7.728302 93 93 93 
-2.698113 -0.377358 -7.728302 95 95 95 
-2.679245 -0.377358 -7.728302 96 96 96 
-2.660377 -0.377358 -7.728302 96 96 96 
-2.641510 -0.377358 -7.728302 96 96 96 
-2.622642 -0.377358 -7.728302 93 93 93 
-2.603774 -0.377358 -7.728302 90 90 90 
-2.584906 -0.377358 -7.728302 89 89 89 
-2.566038 -0.377358 -7.728302 89 89 89 
-2.547170 -0.377358 -7.728302 89 89 89 
-2.528302 -0.377358 -7.728302 88 88 88 
-2.512397 -0.377804 -7.737426 86 86 86 
-2.473620 -0.392638 -8.041227 89 89 89 
-2.453988 -0.392638 -8.041227 89 89 89 
-2.431373 -0.392157 -8.031373 89 89 89 
-2.414724 -0.392638 -8.041227 89 89 89 
-2.395092 -0.392638 -8.041227 89 89 89 
-2.375460 -0.392638 -8.041227 89 89 89 
-2.355828 -0.392638 -8.041227 89 89 89 
-2.336196 -0.392638 -8.041227 89 89 89 
-2.316564 -0.392638 -8.041227 91 91 91 
-2.296932 -0.392638 -8.041227 91 91 91 
-2.280098 -0.393120 -8.051105 91 91 91 
-2.260442 -0.393120 -8.051105 91 91 91 
-2.240786 -0.393120 -8.051105 92 92 92 
-2.218405 -0.392638 -8.041227 92 92 92 
-2.198773 -0.392638 -8.041227 92 92 92 
-2.176471 -0.392157 -8.031373 92 92 92 
-2.151589 -0.391198 -8.011736 93 93 93 
-2.132029 -0.391198 -8.011736 93 93 93 
-2.107317 -0.390244 -7.992195 94 94 94 
-2.082725 -0.389294 -7.972750 94 94 94 
-2.053269 -0.387409 -7.934141 96 96 96 
-2.033898 -0.387409 -7.934141 96 96 96 
-1.541969 -0.331606 -6.791296 99 99 99 
-1.526971 -0.331950 -6.798340 98 98 98 
-1.510373 -0.331950 -6.798340 99 99 99 
-1.495327 -0.332295 -6.805400 99 99 99 
-1.478712 -0.332295 -6.805400 99 99 99 
-1.463617 -0.332640 -6.812474 100 100 100 
-1.446985 -0.332640 -6.812474 102 102 102 
-1.430353 -0.332640 -6.812474 102 102 102 
-1.413721 -0.332640 -6.812474 100 100 100 
-1.397089 -0.332640 -6.812474 99 99 99 
-1.380457 -0.332640 -6.812474 101 101 101 
-1.366667 -0.333333 -6.826667 102 102 102 
-1.351408 -0.333681 -6.833785 101 101 101 
-1.336117 -0.334029 -6.840919 104 104 104 
-1.194937 -0.405063 -8.295696 113 113 113 
-1.171717 -0.404040 -8.274748 113 113 113 
-1.144291 -0.401506 -8.222836 114 114 114 
-1.114428 -0.398010 -8.151244 112 112 112 
-1.093168 -0.397516 -8.141118 111 111 111 
-1.073292 -0.397516 -8.141118 111 111 111 
-1.052109 -0.397022 -8.131018 111 111 111 
-1.032258 -0.397022 -8.131018 111 111 111 
-1.011152 -0.396530 -8.120942 109 109 109 
-0.988875 -0.395550 -8.100865 107 107 107 
-0.966708 -0.394575 -8.080888 108 108 108 
-0.943489 -0.393120 -8.051105 108 108 108 
-0.921569 -0.392157 -8.031373 106 106 106 
-0.898657 -0.390720 -8.001954 105 105 105 
-0.875912 -0.389294 -7.972750 106 106 106 
-0.854369 -0.388350 -7.953398 105 105 105 
-0.836983 -0.389294 -7.972750 105 105 105 
-0.819512 -0.390244 -7.992195 106 106 106 
-0.799026 -0.389769 -7.982460 106 106 106 
-0.779537 -0.389769 -7.982460 104 104 104 
-0.758202 -0.388821 -7.963062 103 103 103 
-0.738761 -0.388821 -7.963062 103 103 103 
-0.720195 -0.389294 -7.972750 103 103 103 
-0.700730 -0.389294 -7.972750 101 101 101 
-0.681265 -0.389294 -7.972750 100 100 100 
-0.661801 -0.389294 -7.972750 99 99 99 
-0.649446 -0.393604 -8.061008 98 98 98 
-0.644025 -0.402516 -8.243522 99 99 99 
-0.627054 -0.404551 -8.285209 101 101 101 
-0.607595 -0.405063 -8.295696 100 100 100 
-0.587342 -0.405063 -8.295696 99 99 99 
-0.568528 -0.406091 -8.316751 99 99 99 
-0.548920 -0.406607 -8.327319 99 99 99 
-0.528590 -0.406607 -8.327319 100 100 100 
-0.509554 -0.407643 -8.348536 100 100 100 
-0.489172 -0.407643 -8.348536 98 98 98 
-0.468790 -0.407643 -8.348536 96 96 96 
-0.448408 -0.407643 -8.348536 96 96 96 
-0.428025 -0.407643 -8.348536 96 96 96 
-0.407643 -0.407643 -8.348536 96 96 96 
-0.387261 -0.407643 -8.348536 96 96 96 
-0.366879 -0.407643 -8.348536 97 97 97 
-0.346056 -0.407125 -8.337914 97 97 97 
-0.325286 -0.406607 -8.327319 96 96 96 
-0.264631 -0.407125 -8.337914 94 94 94 
-0.244275 -0.407125 -8.337914 94 94 94 
-0.065574 -0.327869 -6.714754 93 93 93 
-0.049180 -0.327869 -6.714754 93 93 93 
-0.032787 -0.327869 -6.714754 93 93 93 
-0.016410 -0.328205 -6.721641 94 94 94 
0.000000 -0.328205 -6.721641 95 95 95 
0.016410 -0.328205 -6.721641 96 96 96 
0.032821 -0.328205 -6.721641 96 96 96 
0.049180 -0.327869 -6.714754 96 96 96 
0.065574 -0.327869 -6.714754 95 95 95 
0.081967 -0.327869 -6.714754 95 95 95 
0.098462 -0.328205 -6.721641 96 96 96 
0.115226 -0.329218 -6.742387 96 96 96 
0.132231 -0.330579 -6.770248 95 95 95 
0.149068 -0.331263 -6.784265 96 96 96 
0.165975 -0.331950 -6.798340 97 97 97 
0.183143 -0.332986 -6.819563 97 97 97 
0.200000 -0.333333 -6.826667 98 98 98 
0.216893 -0.333681 -6.833785 99 99 99 
0.234065 -0.334378 -6.848067 100 100 100 
0.251572 -0.335430 -6.869602 99 99 99 
0.269758 -0.337197 -6.905796 98 98 98 
0.286920 -0.337553 -6.913080 100 100 100 
0.304440 -0.338266 -6.927696 99 99 99 
0.321353 -0.338266 -6.927696 101 101 101 
0.338266 -0.338266 -6.927696 103 103 103 
0.355556 -0.338624 -6.935027 103 103 103 
0.372881 -0.338983 -6.942373 102 102 102 
0.389830 -0.338983 -6.942373 101 101 101 
0.407211 -0.339343 -6.949735 102 102 102 
0.494481 -0.353201 -7.233554 104 104 104 
0.511013 -0.352423 -7.217621 104 104 104 
0.528634 -0.352423 -7.217621 107 107 107 
0.546858 -0.352811 -7.225579 109 109 109 
0.564498 -0.352811 -7.225579 109 109 109 
0.582139 -0.352811 -7.225579 107 107 107 
0.599779 -0.352811 -7.225579 106 106 106 
0.617420 -0.352811 -7.225579 109 109 109 
0.632967 -0.351648 -7.201758 112 112 112 
0.649123 -0.350877 -7.185965 113 113 113 
0.665936 -0.350493 -7.178094 113 113 113 
0.683461 -0.350493 -7.178094 115 115 115 
0.701754 -0.350877 -7.185965 117 117 117 
0.719298 -0.350877 -7.185965 118 118 118 
0.736842 -0.350877 -7.185965 115 115 115 
0.754386 -0.350877 -7.185965 117 117 117 
0.894536 -0.406607 -8.327319 120 120 120 
0.998726 -0.407643 -8.348536 121 121 121 
1.016518 -0.406607 -8.327319 121 121 121 
0.845596 -0.331606 -6.791296 122 122 122 
0.861284 -0.331263 -6.784265 122 122 122 
0.876939 -0.330920 -6.777249 122 122 122 
0.895337 -0.331606 -6.791296 122 122 122 
0.948025 -0.332640 -6.812474 123 123 123 
0.964657 -0.332640 -6.812474 123 123 123 
0.980270 -0.332295 -6.805400 125 125 125 
1.013499 -0.332295 -6.805400 124 124 124 
1.444744 -0.431267 -8.832345 123 123 123 
1.466307 -0.431267 -8.832345 122 122 122 
1.487871 -0.431267 -8.832345 122 122 122 
1.507402 -0.430686 -8.820457 121 121 121 
1.528937 -0.430686 -8.820457 118 118 118 
1.556757 -0.432432 -8.856216 119 119 119 
1.489260 -0.381862 -7.820525 121 121 121 
1.495858 -0.378698 -7.755740 121 121 121 
1.525626 -0.381406 -7.811204 120 120 120 
1.546539 -0.381862 -7.820525 120 120 120 
1.565632 -0.381862 -7.820525 120 120 120 
1.588517 -0.382775 -7.839234 119 119 119 
1.609581 -0.383234 -7.848623 119 119 119 
1.628742 -0.383234 -7.848623 120 120 120 
1.647904 -0.383234 -7.848623 118 118 118 
1.667066 -0.383234 -7.848623 117 117 117 
1.686228 -0.383234 -7.848623 117 117 117 
1.709484 -0.384154 -7.867467 115 115 115 
1.730769 -0.384615 -7.876923 113 113 113 
1.750000 -0.384615 -7.876923 115 115 115 
1.799511 -0.391198 -8.011736 116 116 116 
2.017478 -0.399501 -8.181773 115 115 115 
2.037453 -0.399501 -8.181773 115 115 115 
2.060000 -0.400000 -8.192000 115 115 115 
2.093082 -0.402516 -8.243522 116 116 116 
2.125398 -0.340064 -6.964506 112 112 112 
2.140127 -0.339703 -6.957113 111 111 111 
2.154825 -0.339343 -6.949735 108 108 108 
2.171792 -0.339343 -6.949735 108 108 108 
2.188759 -0.339343 -6.949735 108 108 108 
2.205726 -0.339343 -6.949735 108 108 108 
2.225053 -0.339703 -6.957113 109 109 109 
2.251599 -0.341151 -6.986781 109 109 109 
2.278373 -0.342612 -7.016703 110 110 110 
2.297964 -0.342980 -7.024223 110 110 110 
2.317597 -0.343348 -7.031760 111 111 111 
2.334764 -0.343348 -7.031760 112 112 112 
2.349411 -0.342980 -7.024223 111 111 111 
2.361497 -0.342246 -7.009198 107 107 107 
2.378610 -0.342246 -7.009198 103 103 103 
2.395722 -0.342246 -7.009198 105 105 105 
2.423201 -0.343716 -7.039313 106 106 106 
2.440387 -0.343716 -7.039313 102 102 102 
2.457572 -0.343716 -7.039313 99 99 99 
2.493506 -0.346320 -7.092641 99 99 99 
2.521739 -0.347826 -7.123478 101 101 101 
2.544662 -0.348584 -7.138998 105 105 105 
2.562092 -0.348584 -7.138998 105 105 105 
2.587978 -0.349727 -7.162405 106 106 106 
2.611172 -0.350493 -7.178094 108 108 108 
2.637363 -0.351648 -7.201758 109 109 109 
2.675526 -0.354374 -7.257586 106 106 106 
2.711260 -0.356745 -7.306132 107 107 107 
2.732143 -0.357143 -7.314286 109 109 109 
2.753073 -0.357542 -7.322458 107 107 107 
2.777156 -0.358343 -7.338858 103 103 103 
2.801347 -0.359147 -7.355331 104 104 104 
2.822472 -0.359551 -7.363595 106 106 106 
2.840449 -0.359551 -7.363595 106 106 106 
2.871332 -0.361174 -7.396840 103 103 103 
2.889390 -0.361174 -7.396840 103 103 103 
2.917327 -0.362401 -7.421971 105 105 105 
2.938776 -0.362812 -7.430386 106 106 106 
2.956916 -0.362812 -7.430386 106 106 106 
2.968326 -0.361991 -7.413575 109 109 109 
2.983051 -0.361582 -7.405198 109 109 109 
3.001130 -0.361582 -7.405198 104 104 104 
3.019209 -0.361582 -7.405198 101 101 101 
3.037288 -0.361582 -7.405198 100 100 100 
3.256471 -0.376471 -7.710118 91 91 91 
3.283019 -0.377358 -7.728302 93 93 93 
3.301887 -0.377358 -7.728302 98 98 98 
3.328605 -0.378251 -7.746572 100 100 100 
3.351479 -0.378698 -7.755740 99 99 99 
3.374408 -0.379147 -7.764929 100 100 100 
3.389349 -0.378698 -7.755740 101 101 101 
3.408284 -0.378698 -7.755740 100 100 100 
3.419126 -0.377804 -7.737426 96 96 96 
3.433962 -0.377358 -7.728302 94 94 94 
3.452830 -0.377358 -7.728302 95 95 95 
3.471698 -0.377358 -7.728302 91 91 91 
3.490566 -0.377358 -7.728302 89 89 89 
3.521894 -0.378698 -7.755740 91 91 91 
3.578947 -0.382775 -7.839234 95 95 95 
3.598086 -0.382775 -7.839234 97 97 97 
3.617225 -0.382775 -7.839234 94 94 94 
3.636364 -0.382775 -7.839234 95 95 95 
3.651135 -0.382318 -7.829869 98 98 98 
3.661502 -0.381406 -7.811204 95 95 95 
3.667459 -0.380048 -7.783373 95 95 95 
3.647474 -0.376028 -7.701058 98 98 98 
3.657679 -0.375147 -7.683002 103 103 103 
3.650757 -0.372526 -7.629336 103 103 103 
3.652375 -0.370800 -7.593975 101 101 101 
3.662428 -0.369942 -7.576416 103 103 103 
3.659770 -0.367816 -7.532874 102 102 102 
3.652968 -0.365297 -7.481278 95 95 95 
3.833333 -0.370370 -7.585186 99 99 99 
4.217494 -0.378251 -7.746572 86 86 86 
4.231405 -0.377804 -7.737426 91 91 91 
4.250295 -0.377804 -7.737426 90 90 90 
4.274232 -0.378251 -7.746572 90 90 90 
4.308422 -0.379597 -7.774140 91 91 91 
2.866044 -0.249221 -5.104050 83 83 83 
2.865116 -0.248062 -5.080310 79 79 79 
2.884227 -0.248640 -5.092153 78 78 78 
2.923795 -0.248834 -5.096112 83 83 83 
2.920340 -0.247486 -5.068523 80 80 80 
4.681983 -0.386941 -7.924547 51 51 51 
4.707022 -0.387409 -7.934141 54 54 54 
4.737864 -0.388350 -7.953398 59 59 59 
4.780488 -0.390244 -7.992195 61 61 61 
4.805861 -0.390720 -8.001954 65 65 65 
4.837209 -0.391677 -8.021543 66 66 66 
4.868711 -0.392638 -8.041227 64 64 64 
4.900369 -0.393604 -8.061008 67 67 67 
4.920049 -0.393604 -8.061008 67 67 67 
4.939729 -0.393604 -8.061008 67 67 67 
4.959410 -0.393604 -8.061008 66 66 66 
4.972973 -0.393120 -8.051105 64 64 64 
4.992629 -0.393120 -8.051105 60 60 60 
5.012285 -0.393120 -8.051105 57 57 57 
-3.519274 -0.380952 -7.430386 36 36 36 
-3.497169 -0.380521 -7.421971 42 42 42 
-3.475113 -0.380091 -7.413575 44 44 44 
-3.429854 -0.377104 -7.355331 47 47 47 
-3.404255 -0.376260 -7.338858 52 52 52 
-3.378771 -0.375419 -7.322458 58 58 58 
-3.360894 -0.375419 -7.322458 60 60 60 
-3.343017 -0.375419 -7.322458 61 61 61 
-3.328859 -0.375839 -7.330649 64 64 64 
-3.310962 -0.375839 -7.330649 64 64 64 
-3.293065 -0.375839 -7.330649 64 64 64 
-3.282511 -0.376682 -7.347085 64 64 64 
-3.275591 -0.377953 -7.371879 63 63 63 
-3.272316 -0.379661 -7.405198 63 63 63 
-3.261608 -0.380521 -7.421971 64 64 64 
-3.243488 -0.380521 -7.421971 68 68 68 
-3.232690 -0.381385 -7.438819 70 70 70 
-3.288461 -0.403846 -7.876923 53 53 53 
-3.269231 -0.403846 -7.876923 55 55 55 
-3.250000 -0.403846 -7.876923 60 60 60 
-3.230769 -0.403846 -7.876923 61 61 61 
-3.223161 -0.405308 -7.905428 60 60 60 
-3.211608 -0.406288 -7.924547 60 60 60 
-3.203883 -0.407767 -7.953398 61 61 61 
-3.184466 -0.407767 -7.953398 62 62 62 
-3.161212 -0.407273 -7.943758 65 65 65 
-3.141818 -0.407273 -7.943758 70 70 70 
-2.996466 -0.395760 -7.719199 82 82 82 
-2.963658 -0.393904 -7.683002 85 85 85 
-2.941452 -0.393443 -7.674005 86 86 86 
-2.912485 -0.392065 -7.647141 86 86 86 
-2.890443 -0.391608 -7.638228 86 86 86 
-2.865116 -0.390698 -7.620465 87 87 87 
-2.843206 -0.390244 -7.611615 86 86 86 
-2.824623 -0.390244 -7.611615 85 85 85 
-2.815851 -0.391608 -7.638228 87 87 87 
-2.810304 -0.393443 -7.674005 88 88 88 
-2.794842 -0.393904 -7.683002 88 88 88 
-2.779343 -0.394366 -7.692019 90 90 90 
-2.763807 -0.394830 -7.701058 93 93 93 
-2.745006 -0.394830 -7.701058 92 92 92 
-2.729412 -0.395294 -7.710118 91 91 91 
-2.713781 -0.395760 -7.719199 92 92 92 
-2.694935 -0.395760 -7.719199 93 93 93 
-2.676090 -0.395760 -7.719199 93 93 93 
-2.654118 -0.395294 -7.710118 91 91 91 
-2.635294 -0.395294 -7.710118 90 90 90 
-2.616471 -0.395294 -7.710118 90 90 90 
-2.597647 -0.395294 -7.710118 91 91 91 
-2.578824 -0.395294 -7.710118 91 91 91 
-2.560000 -0.395294 -7.710118 91 91 91 
-2.541177 -0.395294 -7.710118 90 90 90 
-2.519389 -0.394830 -7.701058 89 89 89 
-2.497653 -0.394366 -7.692019 88 88 88 
-2.478873 -0.394366 -7.692019 87 87 87 
-2.474616 -0.396694 -7.737426 86 86 86 
-2.470588 -0.411765 -8.031373 89 89 89 
-2.450980 -0.411765 -8.031373 88 88 88 
-2.431373 -0.411765 -8.031373 88 88 88 
-2.414724 -0.412270 -8.041227 89 89 89 
-2.395092 -0.412270 -8.041227 89 89 89 
-2.378378 -0.412776 -8.051105 90 90 90 
-2.358722 -0.412776 -8.051105 91 91 91 
-2.339066 -0.412776 -8.051105 91 91 91 
-2.319410 -0.412776 -8.051105 91 91 91 
-2.156863 -0.411765 -8.031373 94 94 94 
-2.132029 -0.410758 -8.011736 94 94 94 
-2.102190 -0.408759 -7.972750 95 95 95 
-1.731041 -0.339737 -6.626492 96 96 96 
-1.713131 -0.339394 -6.619798 95 95 95 
-1.696970 -0.339394 -6.619798 96 96 96 
-1.679112 -0.339051 -6.613118 96 96 96 
-1.662967 -0.339051 -6.613118 95 95 95 
-1.646821 -0.339051 -6.613118 95 95 95 
-1.630676 -0.339051 -6.613118 96 96 96 
-1.612903 -0.338710 -6.606452 97 97 97 
-1.596774 -0.338710 -6.606452 98 98 98 
-1.583838 -0.339394 -6.619798 98 98 98 
-1.567677 -0.339394 -6.619798 98 98 98 
-1.551515 -0.339394 -6.619798 98 98 98 
-1.554192 -0.343558 -6.701023 99 99 99 
-1.558549 -0.348187 -6.791296 99 99 99 
-1.532441 -0.346035 -6.749331 98 98 98 
-1.523810 -0.347826 -6.784265 97 97 97 
-1.505688 -0.347466 -6.777249 98 98 98 
-1.490683 -0.347826 -6.784265 98 98 98 
-1.474120 -0.347826 -6.784265 98 98 98 
-1.459067 -0.348187 -6.791296 99 99 99 
-1.442487 -0.348187 -6.791296 101 101 101 
-1.425907 -0.348187 -6.791296 102 102 102 
-1.409326 -0.348187 -6.791296 101 101 101 
-1.391304 -0.347826 -6.784265 103 103 103 
-1.374741 -0.347826 -6.784265 105 105 105 
-1.362409 -0.348910 -6.805400 104 104 104 
-1.347193 -0.349272 -6.812474 105 105 105 
-1.331946 -0.349636 -6.819563 106 106 106 
-1.319415 -0.350731 -6.840919 107 107 107 
-1.167296 -0.422642 -8.243522 114 114 114 
-1.134328 -0.417910 -8.151244 112 112 112 
-1.111663 -0.416873 -8.131018 111 111 111 
-1.086420 -0.414815 -8.090864 112 112 112 
-1.067985 -0.415328 -8.100865 111 111 111 
-1.048208 -0.415328 -8.100865 110 110 110 
-1.025894 -0.414303 -8.080888 109 109 109 
-1.006165 -0.414303 -8.080888 110 110 110 
-0.985222 -0.413793 -8.070936 111 111 111 
-0.964330 -0.413284 -8.061008 111 111 111 
-0.941176 -0.411765 -8.031373 109 109 109 
-0.919315 -0.410758 -8.011736 107 107 107 
-0.896468 -0.409257 -7.982460 107 107 107 
-0.871671 -0.406780 -7.934141 108 108 108 
-0.848193 -0.404819 -7.895904 106 106 106 
-0.827918 -0.404332 -7.886402 107 107 107 
-0.808664 -0.404332 -7.886402 107 107 107 
-0.792271 -0.405797 -7.914976 106 106 106 
-0.772947 -0.405797 -7.914976 103 103 103 
-0.750903 -0.404332 -7.886402 104 104 104 
-0.731649 -0.404332 -7.886402 105 105 105 
-0.714113 -0.405308 -7.905428 105 105 105 
-0.694813 -0.405308 -7.905428 103 103 103 
-0.673887 -0.404332 -7.886402 102 102 102 
-0.656212 -0.405308 -7.905428 101 101 101 
-0.647059 -0.411765 -8.031373 100 100 100 
-0.212897 -0.343910 -6.707881 95 95 95 
-0.196520 -0.343910 -6.707881 95 95 95 
-0.180143 -0.343910 -6.707881 95 95 95 
-0.163767 -0.343910 -6.707881 95 95 95 
-0.147390 -0.343910 -6.707881 94 94 94 
-0.131148 -0.344262 -6.714754 93 93 93 
-0.114754 -0.344262 -6.714754 93 93 93 
-0.098361 -0.344262 -6.714754 94 94 94 
-0.081967 -0.344262 -6.714754 94 94 94 
-0.065574 -0.344262 -6.714754 94 94 94 
-0.049180 -0.344262 -6.714754 94 94 94 
-0.032787 -0.344262 -6.714754 95 95 95 
-0.016393 -0.344262 -6.714754 95 95 95 
0.000000 -0.344615 -6.721641 95 95 95 
0.016410 -0.344615 -6.721641 97 97 97 
0.032821 -0.344615 -6.721641 97 97 97 
0.049180 -0.344262 -6.714754 95 95 95 
0.065574 -0.344262 -6.714754 95 95 95 
0.081967 -0.344262 -6.714754 95 95 95 
0.098462 -0.344615 -6.721641 97 97 97 
0.115108 -0.345324 -6.735457 98 98 98 
0.131823 -0.346035 -6.749331 95 95 95 
0.148760 -0.347107 -6.770248 98 98 98 
0.165631 -0.347826 -6.784265 102 102 102 
0.182762 -0.348910 -6.805400 101 101 101 
0.199792 -0.349636 -6.819563 104 104 104 
0.216667 -0.350000 -6.826667 105 105 105 
0.233820 -0.350731 -6.840919 103 103 103 
0.251572 -0.352201 -6.869602 100 100 100 
0.269758 -0.354057 -6.905796 99 99 99 
0.286920 -0.354430 -6.913080 101 101 101 
0.304118 -0.354805 -6.920380 102 102 102 
0.321353 -0.355180 -6.927696 103 103 103 
0.338266 -0.355180 -6.927696 103 103 103 
0.355180 -0.355180 -6.927696 103 103 103 
0.372487 -0.355556 -6.935027 102 102 102 
0.389830 -0.355932 -6.942373 102 102 102 
0.407211 -0.356310 -6.949735 103 103 103 
0.496124 -0.372093 -7.257586 105 105 105 
0.512141 -0.370861 -7.233554 107 107 107 
0.529801 -0.370861 -7.233554 108 108 108 
0.547461 -0.370861 -7.233554 110 110 110 
0.564498 -0.370452 -7.225579 109 109 109 
0.582139 -0.370452 -7.225579 109 109 109 
0.599119 -0.370044 -7.217621 109 109 109 
0.616740 -0.370044 -7.217621 112 112 112 
0.632272 -0.368825 -7.193853 113 113 113 
0.648412 -0.368018 -7.178094 113 113 113 
0.665936 -0.368018 -7.178094 113 113 113 
0.683461 -0.368018 -7.178094 114 114 114 
0.700986 -0.368018 -7.178094 115 115 115 
0.719298 -0.368421 -7.185965 118 118 118 
0.736842 -0.368421 -7.185965 119 119 119 
0.754386 -0.368421 -7.185965 119 119 119 
0.771930 -0.368421 -7.185965 120 120 120 
0.814969 -0.349272 -6.812474 121 121 121 
0.829016 -0.348187 -6.791296 122 122 122 
0.843847 -0.347466 -6.777249 122 122 122 
0.857732 -0.346392 -6.756289 123 123 123 
0.874227 -0.346392 -6.756289 124 124 124 
0.893485 -0.347466 -6.777249 123 123 123 
0.910973 -0.347826 -6.784265 123 123 123 
0.928497 -0.348187 -6.791296 123 123 123 
0.944099 -0.347826 -6.784265 124 124 124 
0.959669 -0.347466 -6.777249 124 124 124 
0.977226 -0.347826 -6.784265 123 123 123 
0.991736 -0.347107 -6.770248 123 123 123 
1.006186 -0.346392 -6.756289 125 125 125 
1.021627 -0.346035 -6.749331 124 124 124 
1.038105 -0.346035 -6.749331 125 125 125 
1.054583 -0.346035 -6.749331 125 125 125 
1.456522 -0.456522 -8.904348 123 123 123 
1.472260 -0.454668 -8.868200 123 123 123 
1.493911 -0.454668 -8.868200 124 124 124 
1.513514 -0.454054 -8.856216 124 124 124 
1.543478 -0.456522 -8.904348 122 122 122 
1.476923 -0.397633 -7.755740 121 121 121 
1.490566 -0.396226 -7.728302 123 123 123 
1.513002 -0.397163 -7.746572 123 123 123 
1.535545 -0.398104 -7.764929 122 122 122 
1.556346 -0.398576 -7.774140 121 121 121 
1.584725 -0.400955 -7.820525 119 119 119 
1.607656 -0.401914 -7.839234 120 120 120 
1.626794 -0.401914 -7.839234 121 121 121 
1.645933 -0.401914 -7.839234 121 121 121 
1.665072 -0.401914 -7.839234 121 121 121 
1.684211 -0.401914 -7.839234 119 119 119 
1.705389 -0.402395 -7.848623 118 118 118 
1.728691 -0.403361 -7.867467 116 116 116 
1.750000 -0.403846 -7.876923 116 116 116 
1.655738 -0.344262 -6.714754 113 113 113 
1.672131 -0.344262 -6.714754 113 113 113 
1.688525 -0.344262 -6.714754 115 115 115 
2.108395 -0.357067 -6.964506 114 114 114 
2.123142 -0.356688 -6.957113 114 114 114 
2.137858 -0.356310 -6.949735 113 113 113 
2.157113 -0.356688 -6.957113 108 108 108 
2.171792 -0.356310 -6.949735 107 107 107 
2.188759 -0.356310 -6.949735 103 103 103 
2.205726 -0.356310 -6.949735 104 104 104 
2.232162 -0.357827 -6.979340 108 108 108 
2.251599 -0.358209 -6.986781 112 112 112 
2.280815 -0.360129 -7.024223 113 113 113 
2.300429 -0.360515 -7.031760 114 114 114 
2.317597 -0.360515 -7.031760 115 115 115 
2.334764 -0.360515 -7.031760 115 115 115 
2.351931 -0.360515 -7.031760 113 113 113 
2.366560 -0.360129 -7.024223 110 110 110 
2.381156 -0.359743 -7.016703 108 108 108 
2.403434 -0.360515 -7.031760 106 106 106 
2.423201 -0.360902 -7.039313 104 104 104 
2.440387 -0.360902 -7.039313 101 101 101 
2.457572 -0.360902 -7.039313 101 101 101 
2.493506 -0.363636 -7.092641 104 104 104 
2.519001 -0.364821 -7.115744 108 108 108 
2.541893 -0.365615 -7.131230 109 109 109 
2.562092 -0.366013 -7.138998 107 107 107 
2.585153 -0.366812 -7.154585 103 103 103 
2.605464 -0.367213 -7.162405 105 105 105 
2.628697 -0.368018 -7.178094 107 107 107 
2.657866 -0.369637 -7.209681 107 107 107 
2.693245 -0.372093 -7.257586 106 106 106 
2.720000 -0.373333 -7.281778 106 106 106 
2.746934 -0.374582 -7.306132 106 106 106 
2.767857 -0.375000 -7.314286 105 105 105 
2.788827 -0.375419 -7.322458 107 107 107 
2.809843 -0.375839 -7.330649 107 107 107 
2.827740 -0.375839 -7.330649 106 106 106 
2.848824 -0.376260 -7.338858 104 104 104 
2.866741 -0.376260 -7.338858 102 102 102 
2.894382 -0.377528 -7.363595 104 104 104 
2.922210 -0.378805 -7.388501 104 104 104 
2.940248 -0.378805 -7.388501 101 101 101 
2.948315 -0.377528 -7.363595 106 106 106 
2.956327 -0.376260 -7.338858 111 111 111 
2.974244 -0.376260 -7.338858 107 107 107 
2.992161 -0.376260 -7.338858 105 105 105 
3.010078 -0.376260 -7.338858 102 102 102 
3.027996 -0.376260 -7.338858 98 98 98 
3.336493 -0.398104 -7.764929 92 92 92 
3.355450 -0.398104 -7.764929 92 92 92 
3.374408 -0.398104 -7.764929 93 93 93 
3.389349 -0.397633 -7.755740 93 93 93 
3.404255 -0.397163 -7.746572 95 95 95 
3.415094 -0.396226 -7.728302 94 94 94 
3.433962 -0.396226 -7.728302 92 92 92 
3.448763 -0.395760 -7.719199 98 98 98 
3.463529 -0.395294 -7.710118 101 101 101 
3.490566 -0.396226 -7.728302 103 103 103 
3.534442 -0.399050 -7.783373 104 104 104 
3.587530 -0.402878 -7.858034 101 101 101 
3.602395 -0.402395 -7.848623 97 97 97 
3.617225 -0.401914 -7.839234 96 96 96 
3.636364 -0.401914 -7.839234 98 98 98 
3.655502 -0.401914 -7.839234 104 104 104 
3.648456 -0.399050 -7.783373 105 105 105 
3.632941 -0.395294 -7.710118 104 104 104 
3.626168 -0.392523 -7.656075 104 104 104 
3.632130 -0.391153 -7.629336 102 102 102 
3.633836 -0.389340 -7.593975 101 101 101 
3.643931 -0.388439 -7.576416 101 101 101 
3.658199 -0.387991 -7.567667 103 103 103 
3.659770 -0.386207 -7.532874 100 100 100 
3.652968 -0.383562 -7.481278 97 97 97 
4.198582 -0.397163 -7.746572 95 95 95 
4.212515 -0.396694 -7.737426 98 98 98 
4.231405 -0.396694 -7.737426 99 99 99 
4.245283 -0.396226 -7.728302 97 97 97 
4.264151 -0.396226 -7.728302 96 96 96 
4.288075 -0.396694 -7.737426 93 93 93 
3.816667 -0.350000 -6.826667 90 90 90 
2.854926 -0.260667 -5.084251 92 92 92 
2.858469 -0.259861 -5.068523 89 89 89 
2.870843 -0.259861 -5.068523 89 89 89 
2.896659 -0.261072 -5.092153 95 95 95 
2.909091 -0.261072 -5.092153 97 97 97 
2.910217 -0.260062 -5.072446 88 88 88 
2.918083 -0.259660 -5.064606 80 80 80 
2.930448 -0.259660 -5.064606 75 75 75 
4.681983 -0.406288 -7.924547 68 68 68 
4.701330 -0.406288 -7.924547 69 69 69 
4.737864 -0.407767 -7.953398 69 69 69 
4.780488 -0.409756 -7.992195 66 66 66 
4.805861 -0.410256 -8.001954 65 65 65 
4.843137 -0.411765 -8.031373 69 69 69 
4.880689 -0.413284 -8.061008 74 74 74 
4.906404 -0.413793 -8.070936 76 76 76 
4.920049 -0.413284 -8.061008 77 77 77 
4.939729 -0.413284 -8.061008 78 78 78 
4.953317 -0.412776 -8.051105 77 77 77 
4.972973 -0.412776 -8.051105 78 78 78 
4.992629 -0.412776 -8.051105 76 76 76 
5.012285 -0.412776 -8.051105 73 73 73 
-3.523269 -0.399546 -7.438819 38 38 38 
-3.501134 -0.399093 -7.430386 42 42 42 
-3.475113 -0.398190 -7.413575 49 49 49 
-3.429854 -0.395062 -7.355331 57 57 57 
-3.400447 -0.393736 -7.330649 63 63 63 
-3.375000 -0.392857 -7.314286 65 65 65 
-3.357143 -0.392857 -7.314286 63 63 63 
-3.339286 -0.392857 -7.314286 64 64 64 
-3.321429 -0.392857 -7.314286 64 64 64 
-3.307263 -0.393296 -7.322458 66 66 66 
-3.293065 -0.393736 -7.330649 67 67 67 
-3.278835 -0.394177 -7.338858 67 67 67 
-3.268238 -0.395062 -7.355331 68 68 68 
-3.261261 -0.396396 -7.380180 69 69 69 
-3.246900 -0.396843 -7.388501 73 73 73 
-3.225225 -0.396396 -7.380180 77 77 77 
-3.225368 -0.398641 -7.421971 77 77 77 
-3.269231 -0.423077 -7.876923 64 64 64 
-3.242206 -0.422062 -7.858034 66 66 66 
-3.223022 -0.422062 -7.858034 68 68 68 
-3.207683 -0.422569 -7.867467 67 67 67 
-3.203860 -0.424608 -7.905428 65 65 65 
-3.192261 -0.425635 -7.924547 66 66 66 
-3.169082 -0.425121 -7.914976 70 70 70 
-3.149758 -0.425121 -7.914976 76 76 76 
-3.141818 -0.426667 -7.943758 79 79 79 
-3.103030 -0.426667 -7.943758 80 80 80 
-2.985915 -0.413146 -7.692019 84 84 84 
-2.956725 -0.411696 -7.665030 87 87 87 
-2.927739 -0.410256 -7.638228 86 86 86 
-2.902326 -0.409302 -7.620465 85 85 85 
-2.880372 -0.408827 -7.611615 86 86 86 
-2.861789 -0.408827 -7.611615 88 88 88 
-2.839907 -0.408353 -7.602784 90 90 90 
-2.821346 -0.408353 -7.602784 89 89 89 
-2.806040 -0.408827 -7.611615 88 88 88 
-2.797203 -0.410256 -7.638228 87 87 87 
-2.791569 -0.412178 -7.674005 87 87 87 
-2.776084 -0.412661 -7.683002 91 91 91 
-2.760563 -0.413146 -7.692019 94 94 94 
-2.745006 -0.413631 -7.701058 94 94 94 
-2.726204 -0.413631 -7.701058 92 92 92 
-2.710588 -0.414118 -7.710118 91 91 91 
-2.691765 -0.414118 -7.710118 92 92 92 
-2.672941 -0.414118 -7.710118 92 92 92 
-2.654118 -0.414118 -7.710118 90 90 90 
-2.632197 -0.413631 -7.701058 89 89 89 
-2.613396 -0.413631 -7.701058 91 91 91 
-2.594594 -0.413631 -7.701058 91 91 91 
-2.575793 -0.413631 -7.701058 89 89 89 
-2.556992 -0.413631 -7.701058 89 89 89 
-2.538190 -0.413631 -7.701058 88 88 88 
-2.516432 -0.413146 -7.692019 88 88 88 
-2.491803 -0.412178 -7.674005 88 88 88 
-2.461539 -0.410256 -7.638228 88 88 88 
-2.434379 -0.408827 -7.611615 88 88 88 
-2.412993 -0.408353 -7.602784 89 89 89 
-2.259887 -0.397740 -7.405198 88 88 88 
-2.431373 -0.431373 -8.031373 88 88 88 
-1.779575 -0.355915 -6.626492 94 94 94 
-1.759839 -0.355197 -6.613118 96 96 96 
-1.741935 -0.354839 -6.606452 96 96 96 
-1.725806 -0.354839 -6.606452 96 96 96 
-1.707956 -0.354481 -6.599799 95 95 95 
-1.693548 -0.354839 -6.606452 96 96 96 
-1.675730 -0.354481 -6.599799 96 96 96 
-1.659617 -0.354481 -6.599799 95 95 95 
-1.643505 -0.354481 -6.599799 95 95 95 
-1.627392 -0.354481 -6.599799 96 96 96 
-1.609658 -0.354125 -6.593159 97 97 97 
-1.593561 -0.354125 -6.593159 98 98 98 
-1.579053 -0.354481 -6.599799 97 97 97 
-1.564516 -0.354839 -6.606452 97 97 97 
-1.548387 -0.354839 -6.606452 98 98 98 
-1.532258 -0.354839 -6.606452 100 100 100 
-1.522267 -0.356275 -6.633198 100 100 100 
-1.518367 -0.359184 -6.687347 99 99 99 
-1.502041 -0.359184 -6.687347 100 100 100 
-1.482688 -0.358452 -6.673727 100 100 100 
-1.466395 -0.358452 -6.673727 100 100 100 
-1.450102 -0.358452 -6.673727 100 100 100 
-1.442623 -0.360656 -6.714754 100 100 100 
-1.432099 -0.362140 -6.742387 103 103 103 
-1.420021 -0.363261 -6.763261 102 102 102 
-1.403509 -0.363261 -6.763261 103 103 103 
-1.379877 -0.361396 -6.728542 103 103 103 
-1.363450 -0.361396 -6.728542 103 103 103 
-1.352577 -0.362887 -6.756289 105 105 105 
-1.341615 -0.364389 -6.784265 107 107 107 
-1.325052 -0.364389 -6.784265 106 106 106 
-1.308489 -0.364389 -6.784265 106 106 106 
-1.368421 -0.385965 -7.185965 108 108 108 
-1.111663 -0.436725 -8.131018 112 112 112 
-1.086420 -0.434568 -8.090864 113 113 113 
-1.067985 -0.435105 -8.100865 113 113 113 
-1.048208 -0.435105 -8.100865 113 113 113 
-1.025894 -0.434032 -8.080888 112 112 112 
-1.006165 -0.434032 -8.080888 113 113 113 
-0.985222 -0.433498 -8.070936 115 115 115 
-0.965517 -0.433498 -8.070936 114 114 114 
-0.942331 -0.431902 -8.041227 112 112 112 
-0.920441 -0.430845 -8.021543 109 109 109 
-0.896468 -0.428745 -7.982460 109 109 109 
-0.874848 -0.427704 -7.963062 110 110 110 
-0.848193 -0.424096 -7.895904 109 109 109 
-0.827918 -0.423586 -7.886402 108 108 108 
-0.808664 -0.423586 -7.886402 108 108 108 
-0.792271 -0.425121 -7.914976 106 106 106 
-0.772947 -0.425121 -7.914976 105 105 105 
-0.750903 -0.423586 -7.886402 106 106 106 
-0.731649 -0.423586 -7.886402 106 106 106 
-0.714113 -0.424608 -7.905428 105 105 105 
-0.694813 -0.424608 -7.905428 103 103 103 
-0.673887 -0.423586 -7.886402 103 103 103 
-0.654633 -0.423586 -7.886402 103 103 103 
-0.636912 -0.424608 -7.905428 102 102 102 
-0.228805 -0.359551 -6.694178 97 97 97 
-0.212679 -0.359918 -6.701023 96 96 96 
-0.196319 -0.359918 -6.701023 95 95 95 
-0.179959 -0.359918 -6.701023 95 95 95 
-0.163767 -0.360287 -6.707881 95 95 95 
-0.147390 -0.360287 -6.707881 96 96 96 
-0.131013 -0.360287 -6.707881 96 96 96 
-0.114754 -0.360656 -6.714754 95 95 95 
-0.098361 -0.360656 -6.714754 95 95 95 
-0.081967 -0.360656 -6.714754 96 96 96 
-0.065574 -0.360656 -6.714754 96 96 96 
-0.049180 -0.360656 -6.714754 96 96 96 
-0.032787 -0.360656 -6.714754 96 96 96 
-0.016393 -0.360656 -6.714754 96 96 96 
0.000000 -0.361026 -6.721641 98 98 98 
0.016410 -0.361026 -6.721641 98 98 98 
0.032821 -0.361026 -6.721641 97 97 97 
0.049231 -0.361026 -6.721641 98 98 98 
0.065574 -0.360656 -6.714754 100 100 100 
0.081967 -0.360656 -6.714754 99 99 99 
0.098462 -0.361026 -6.721641 100 100 100 
0.115108 -0.361768 -6.735457 101 101 101 
0.131823 -0.362513 -6.749331 99 99 99 
0.148760 -0.363636 -6.770248 99 99 99 
0.165631 -0.364389 -6.784265 101 101 101 
0.182762 -0.365524 -6.805400 104 104 104 
0.199584 -0.365904 -6.812474 104 104 104 
0.216667 -0.366667 -6.826667 106 106 106 
0.233820 -0.367432 -6.840919 106 106 106 
0.251572 -0.368973 -6.869602 103 103 103 
0.269474 -0.370526 -6.898526 101 101 101 
0.286920 -0.371308 -6.913080 101 101 101 
0.304118 -0.371700 -6.920380 103 103 103 
0.321014 -0.371700 -6.920380 105 105 105 
0.338266 -0.372093 -6.927696 105 105 105 
0.355180 -0.372093 -6.927696 103 103 103 
0.372093 -0.372093 -6.927696 104 104 104 
0.389418 -0.372487 -6.935027 105 105 105 
0.481069 -0.391982 -7.297996 107 107 107 
0.496674 -0.390244 -7.265632 106 106 106 
0.513843 -0.389812 -7.257586 107 107 107 
0.531561 -0.389812 -7.257586 109 109 109 
0.548066 -0.388950 -7.241547 111 111 111 
0.565746 -0.388950 -7.241547 113 113 113 
0.582139 -0.388093 -7.225579 114 114 114 
0.599119 -0.387665 -7.217621 111 111 111 
0.616740 -0.387665 -7.217621 111 111 111 
0.632272 -0.386389 -7.193853 112 112 112 
0.648412 -0.385542 -7.178094 112 112 112 
0.665208 -0.385120 -7.170241 114 114 114 
0.682713 -0.385120 -7.170241 114 114 114 
0.700986 -0.385542 -7.178094 114 114 114 
0.719298 -0.385965 -7.185965 115 115 115 
0.736842 -0.385965 -7.185965 117 117 117 
0.753560 -0.385542 -7.178094 118 118 118 
0.771084 -0.385542 -7.178094 118 118 118 
0.788609 -0.385542 -7.178094 120 120 120 
0.798337 -0.365904 -6.812474 120 120 120 
0.811594 -0.364389 -6.784265 121 121 121 
0.827301 -0.364012 -6.777249 121 121 121 
0.840371 -0.362513 -6.749331 120 120 120 
0.855087 -0.361768 -6.735457 122 122 122 
0.871531 -0.361768 -6.735457 124 124 124 
0.890722 -0.362887 -6.756289 124 124 124 
0.910031 -0.364012 -6.777249 124 124 124 
0.926577 -0.364012 -6.777249 125 125 125 
0.941176 -0.363261 -6.763261 126 126 126 
0.955716 -0.362513 -6.749331 126 126 126 
0.972194 -0.362513 -6.749331 124 124 124 
0.986639 -0.361768 -6.735457 124 124 124 
1.002053 -0.361396 -6.728542 125 125 125 
1.017436 -0.361026 -6.721641 124 124 124 
1.034908 -0.361396 -6.728542 124 124 124 
1.050256 -0.361026 -6.721641 125 125 125 
1.071061 -0.362513 -6.749331 124 124 124 
1.478261 -0.478261 -8.904348 126 126 126 
1.500000 -0.478261 -8.904348 126 126 126 
1.521739 -0.478261 -8.904348 126 126 126 
1.469965 -0.414605 -7.719199 121 121 121 
1.488810 -0.414605 -7.719199 121 121 121 
1.509434 -0.415094 -7.728302 122 122 122 
1.528302 -0.415094 -7.728302 123 123 123 
1.547170 -0.415094 -7.728302 123 123 123 
1.575326 -0.417556 -7.774140 122 122 122 
1.603819 -0.420048 -7.820525 122 122 122 
1.626794 -0.421053 -7.839234 121 121 121 
1.645933 -0.421053 -7.839234 121 121 121 
1.659118 -0.419547 -7.811204 120 120 120 
1.682198 -0.420550 -7.829869 118 118 118 
1.705389 -0.421557 -7.848623 119 119 119 
1.728691 -0.422569 -7.867467 120 120 120 
1.635992 -0.359918 -6.701023 114 114 114 
1.652352 -0.359918 -6.701023 115 115 115 
1.668712 -0.359918 -6.701023 115 115 115 
1.688525 -0.360656 -6.714754 116 116 116 
1.704918 -0.360656 -6.714754 116 116 116 
1.721311 -0.360656 -6.714754 115 115 115 
2.128755 -0.377682 -7.031760 115 115 115 
2.125398 -0.374070 -6.964506 114 114 114 
2.144681 -0.374468 -6.971915 115 115 115 
2.161702 -0.374468 -6.971915 112 112 112 
2.178723 -0.374468 -6.971915 111 111 111 
2.198083 -0.374867 -6.979340 109 109 109 
2.215122 -0.374867 -6.979340 110 110 110 
2.232162 -0.374867 -6.979340 110 110 110 
2.266094 -0.377682 -7.031760 113 113 113 
2.288172 -0.378495 -7.046882 114 114 114 
2.302900 -0.378088 -7.039313 114 114 114 
2.320086 -0.378088 -7.039313 115 115 115 
2.337272 -0.378088 -7.039313 113 113 113 
2.354458 -0.378088 -7.039313 112 112 112 
2.371643 -0.378088 -7.039313 111 111 111 
2.388829 -0.378088 -7.039313 110 110 110 
2.408602 -0.378495 -7.046882 110 110 110 
2.425807 -0.378495 -7.046882 105 105 105 
2.443011 -0.378495 -7.046882 102 102 102 
2.465517 -0.379310 -7.062069 102 102 102 
2.501629 -0.382193 -7.115744 103 103 103 
2.524483 -0.383025 -7.131230 105 105 105 
2.544662 -0.383442 -7.138998 107 107 107 
2.564885 -0.383860 -7.146783 106 106 106 
2.585153 -0.384279 -7.154585 103 103 103 
2.605464 -0.384699 -7.162405 102 102 102 
2.622951 -0.384699 -7.162405 103 103 103 
2.646221 -0.385542 -7.178094 104 104 104 
2.675467 -0.387239 -7.209681 103 103 103 
2.710963 -0.389812 -7.257586 104 104 104 
2.737778 -0.391111 -7.281778 106 106 106 
2.758621 -0.391546 -7.289878 107 107 107 
2.782609 -0.392419 -7.306132 108 108 108 
2.803571 -0.392857 -7.314286 106 106 106 
2.821429 -0.392857 -7.314286 102 102 102 
2.839286 -0.392857 -7.314286 99 99 99 
2.857143 -0.392857 -7.314286 101 101 101 
2.878212 -0.393296 -7.322458 103 103 103 
2.902575 -0.394177 -7.338858 104 104 104 
2.920493 -0.394177 -7.338858 103 103 103 
2.935123 -0.393736 -7.330649 102 102 102 
2.949721 -0.393296 -7.322458 105 105 105 
2.967598 -0.393296 -7.322458 105 105 105 
2.982143 -0.392857 -7.314286 104 104 104 
3.000000 -0.392857 -7.314286 102 102 102 
3.017857 -0.392857 -7.314286 98 98 98 
3.035714 -0.392857 -7.314286 95 95 95 
3.053571 -0.392857 -7.314286 95 95 95 
3.061179 -0.391546 -7.289878 98 98 98 
3.085842 -0.392419 -7.306132 98 98 98 
3.367420 -0.418549 -7.792628 90 90 90 
3.378410 -0.417556 -7.774140 95 95 95 
3.389349 -0.416568 -7.755740 95 95 95 
3.404255 -0.416076 -7.746572 95 95 95 
3.415094 -0.415094 -7.728302 91 91 91 
3.433962 -0.415094 -7.728302 93 93 93 
3.448763 -0.414605 -7.719199 100 100 100 
3.463529 -0.414118 -7.710118 104 104 104 
3.486455 -0.414605 -7.719199 106 106 106 
3.615385 -0.423077 -7.876923 97 97 97 
3.617225 -0.421053 -7.839234 97 97 97 
3.636364 -0.421053 -7.839234 102 102 102 
3.655502 -0.421053 -7.839234 106 106 106 
3.661502 -0.419547 -7.811204 110 110 110 
3.632941 -0.414118 -7.710118 117 117 117 
3.626168 -0.411215 -7.656075 121 121 121 
3.623693 -0.408827 -7.611615 111 111 111 
3.629630 -0.407407 -7.585186 95 95 95 
3.648148 -0.407407 -7.585186 91 91 91 
3.758730 -0.372487 -6.935027 99 99 99 
3.767687 -0.371700 -6.920380 101 101 101 
3.776607 -0.370917 -6.905796 105 105 105 
3.789474 -0.370526 -6.898526 105 105 105 
3.794334 -0.369360 -6.876810 102 102 102 
3.795193 -0.367816 -6.848067 93 93 93 
3.811912 -0.367816 -6.848067 86 86 86 
3.816667 -0.366667 -6.826667 84 84 84 
2.854926 -0.273080 -5.084251 88 88 88 
2.858469 -0.272235 -5.068523 89 89 89 
2.870843 -0.272235 -5.068523 92 92 92 
2.889922 -0.272868 -5.080310 93 93 93 
2.902326 -0.272868 -5.080310 88 88 88 
2.910217 -0.272446 -5.072446 82 82 82 
2.920340 -0.272235 -5.068523 83 83 83 
2.932715 -0.272235 -5.068523 83 83 83 
3.946557 -0.361768 -6.735457 83 83 83 
3.958932 -0.361396 -6.728542 85 85 85 
3.967213 -0.360656 -6.714754 84 84 84 
3.967347 -0.359184 -6.687347 79 79 79 
3.971516 -0.358087 -6.666938 74 74 74 
3.975659 -0.356998 -6.646653 76 76 76 
3.983806 -0.356275 -6.633198 76 76 76 
3.991919 -0.355556 -6.619798 76 76 76 
4.926108 -0.433498 -8.070936 69 69 69 
4.939729 -0.432964 -8.061008 70 70 70 
4.947239 -0.431902 -8.041227 72 72 72 
4.966871 -0.431902 -8.041227 75 75 75 
4.980392 -0.431373 -8.031373 76 76 76 
5.000000 -0.431373 -8.031373 76 76 76 
-3.523269 -0.417707 -7.438819 42 42 42 
-3.501134 -0.417234 -7.430386 46 46 46 
-3.471186 -0.415819 -7.405198 52 52 52 
-3.426009 -0.412556 -7.347085 59 59 59 
-3.392857 -0.410714 -7.314286 65 65 65 
-3.371238 -0.410256 -7.306132 67 67 67 
-3.353400 -0.410256 -7.306132 67 67 67 
-3.335563 -0.410256 -7.306132 67 67 67 
-3.321429 -0.410714 -7.314286 68 68 68 
-3.303571 -0.410714 -7.314286 70 70 70 
-3.289386 -0.411173 -7.322458 72 72 72 
-3.275168 -0.411633 -7.330649 72 72 72 
-3.268238 -0.413019 -7.355331 72 72 72 
-3.257593 -0.413948 -7.371879 76 76 76 
-3.243243 -0.414414 -7.380180 78 78 78 
-3.217978 -0.413483 -7.363595 80 80 80 
-3.196409 -0.413019 -7.355331 81 81 81 
-3.182023 -0.413483 -7.363595 81 81 81 
-3.242206 -0.441247 -7.858034 62 62 62 
-3.211470 -0.439665 -7.829869 67 67 67 
-3.203837 -0.441247 -7.858034 71 71 71 
-3.196149 -0.442840 -7.886402 74 74 74 
-3.188406 -0.444444 -7.914976 80 80 80 
-3.165259 -0.443908 -7.905428 83 83 83 
-3.134615 -0.442308 -7.876923 86 86 86 
-2.982415 -0.431419 -7.683002 87 87 87 
-2.956725 -0.430409 -7.665030 88 88 88 
-2.917538 -0.427410 -7.611615 85 85 85 
-2.898955 -0.427410 -7.611615 85 85 85 
-2.877030 -0.426914 -7.602784 89 89 89 
-2.858469 -0.426914 -7.602784 89 89 89 
-2.836617 -0.426419 -7.593975 90 90 90 
-2.818076 -0.426419 -7.593975 92 92 92 
-2.799536 -0.426419 -7.593975 93 93 93 
-2.793947 -0.428405 -7.629336 92 92 92 
-2.781797 -0.429405 -7.647141 92 92 92 
-2.772834 -0.430913 -7.674005 92 92 92 
-2.757327 -0.431419 -7.683002 93 93 93 
-2.741784 -0.431925 -7.692019 93 93 93 
-2.726204 -0.432432 -7.701058 93 93 93 
-2.707403 -0.432432 -7.701058 91 91 91 
-2.691765 -0.432941 -7.710118 91 91 91 
-2.669800 -0.432432 -7.701058 92 92 92 
-2.647887 -0.431925 -7.692019 90 90 90 
-2.629108 -0.431925 -7.692019 90 90 90 
-2.610329 -0.431925 -7.692019 92 92 92 
-2.591549 -0.431925 -7.692019 90 90 90 
-2.572770 -0.431925 -7.692019 89 89 89 
-2.553991 -0.431925 -7.692019 89 89 89 
-2.532239 -0.431419 -7.683002 89 89 89 
-2.510539 -0.430913 -7.674005 89 89 89 
-2.480186 -0.428904 -7.638228 89 89 89 
-2.452962 -0.427410 -7.611615 88 88 88 
-2.425926 -0.425926 -7.585186 88 88 88 
-2.396313 -0.423963 -7.550231 88 88 88 
-2.386127 -0.425434 -7.576416 88 88 88 
